ply
format ascii 1.0
element vertex 706
property double x
property double y
property double z
property uchar red
property uchar green
property uchar blue
end_header
0.0471991403782249 0.0899649581183350 1.3452296474503929 50 50 50
-0.0689124480966175 0.0124761211618497 1.3247905283207080 47 47 47
-0.0710747906690595 0.0104431478662636 1.3257946460255161 80 80 80
-0.0413002298147135 0.0468700414007273 1.3097267983726466 79 79 79
-0.0413002298147135 0.0468700414007273 1.3097267983726466 79 79 79
-0.0669859175620532 0.0165985433206950 1.3235014732115515 62 62 62
-0.0350189423567864 0.0554339027637345 1.3071302937723543 117 117 117
-0.0430685224517305 0.0467625031241870 1.3100909417291520 104 104 104
-0.0297378823656613 0.0569199917789183 1.3108225466760928 23 23 23
-0.0717742155234610 0.0115650433638648 1.3264832438742400 47 47 47
-0.0656793791620515 0.0197198154690390 1.3224538245246928 63 63 63
-0.0710659098689781 0.0128956659667586 1.3260434622876138 50 50 50
-0.0723642109755835 0.0115366169112615 1.3270634710361064 70 70 70
-0.0435037172947645 0.0480918671726937 1.3100360977009948 121 121 121
-0.0716562226493391 0.0132179205922975 1.3265933776508820 53 53 53
0.0440055846131766 0.0900668770844537 1.3484521951009569 51 51 51
0.0417263336710791 0.0872868350367223 1.3505374908989387 47 47 47
-0.0745686184923361 0.0107145039261825 1.3281642804451392 68 68 68
-0.0689934088802190 0.0179082110634759 1.3245153842236037 49 49 49
-0.0709155662930559 0.0158288899175247 1.3260701906400274 46 46 46
-0.0745227705037148 0.0115055619678667 1.3280705350473692 40 40 40
-0.0448893172146189 0.0484988105545697 1.3109473103242151 101 101 101
0.0410077640709867 0.0881451823744783 1.3499294276106242 46 46 46
-0.0687450434225511 0.0193961308265346 1.3245534264670260 86 86 86
-0.0397183844007890 0.0556043658290603 1.3077812875195016 101 101 101
-0.0397183844007890 0.0556043658290603 1.3077812875195016 101 101 101
-0.0475927459024884 0.0465282616478536 1.3116367982842825 104 104 104
-0.0434564045311786 0.0517274012260636 1.3096945704149818 121 121 121
-0.0434564045311786 0.0517274012260636 1.3096945704149818 121 121 121
-0.0699470038774296 0.0189804757430670 1.3250545953296085 62 62 62
0.0379241219238604 0.0848389489676024 1.3528185022697294 52 52 52
-0.0482017574021195 0.0468235246329607 1.3117652139358751 93 93 93
0.0442266481324848 0.0938957817590765 1.3483000954196485 63 63 63
-0.0441285876249300 0.0528848498711303 1.3093629170494177 121 121 121
0.0446901553488434 0.0961892024414253 1.3487424965147889 39 39 39
-0.0744583906390140 0.0161894863911240 1.3280738669193908 52 52 52
-0.0752012113959642 0.0158077866800448 1.3283656148354617 39 39 39
-0.0750922060462505 0.0155864070010068 1.3289375340752598 39 39 39
-0.0447062934159635 0.0550086363402427 1.3089929223146013 137 137 137
-0.0447062934159635 0.0550086363402427 1.3089929223146013 137 137 137
-0.0735576858791503 0.0180482834193044 1.3279373984517475 53 53 53
-0.0372646704520148 0.0606535672480733 1.3101529191519772 27 27 27
-0.0735158983398539 0.0191805643533284 1.3279739787431615 32 32 32
-0.0519504672652001 0.0487776150697050 1.3130690835478380 26 26 26
-0.0721661972816290 0.0227837809686075 1.3264679562687696 52 52 52
-0.0506603577642836 0.0514953094653139 1.3117933162439344 98 98 98
-0.0732447171149109 0.0226204777530771 1.3278338803215295 35 35 35
-0.0732810305764721 0.0226898247471013 1.3277170356850370 35 35 35
0.0388180957589732 0.0940627488920629 1.3529538427067780 65 65 65
-0.0503507395137025 0.0531687191886793 1.3116677965436014 60 60 60
-0.0191985816657945 0.0511851017117330 1.3486902890137431 67 67 67
-0.0518878594022451 0.0521814070657102 1.3128452887030393 83 83 83
-0.0504454055157625 0.0541547829274430 1.3117898465389324 71 71 71
-0.0474768348434643 0.0584003469318189 1.3100602580645837 64 64 64
-0.0501998370389577 0.0557512538117027 1.3112633561271323 77 77 77
-0.0466750077954403 0.0604414490679393 1.3093643307784613 64 64 64
-0.0766064238517685 0.0203950300688104 1.3312361873264653 36 36 36
-0.0763085886386622 0.0208532327115378 1.3309937573094286 50 50 50
0.0298072085052791 0.0842977766799571 1.3605899635760945 51 51 51
-0.0191516942807583 0.0538874736617983 1.3500391527002074 55 55 55
-0.0496817602262280 0.0595245051812851 1.3109559462613529 42 42 42
-0.0540082828341872 0.0551029732358346 1.3138292069840385 44 44 44
-0.0771214235065614 0.0235136161020764 1.3316274775688302 55 55 55
-0.0818626372601494 0.0169674239148409 1.3363808551487875 60 60 60
0.0252015290238455 0.0831191464105804 1.3638067723518255 54 54 54
-0.0487838424141473 0.0629793835265705 1.3106049116300573 88 88 88
-0.0561440529648210 0.0544451598369386 1.3149009407982097 61 61 61
-0.0807676499472639 0.0200169396853358 1.3356956477745905 38 38 38
-0.0757273420936548 0.0274679478700152 1.3310492495272452 59 59 59
-0.0782183312359630 0.0251652700855236 1.3332302094011352 39 39 39
-0.0763768202252221 0.0276572174364640 1.3318957746668947 20 20 20
-0.0811200718004189 0.0210259591160546 1.3361955927235789 94 94 94
-0.0819279635701384 0.0197761705640277 1.3370443544437560 58 58 58
-0.0530292640570724 0.0602245900524742 1.3136246191376113 65 65 65
-0.0511452776088072 0.0633125707359136 1.3119385293393575 78 78 78
-0.0801672521636028 0.0230898314037331 1.3355573953914235 47 47 47
-0.0800630770575854 0.0228673904464808 1.3359291920993601 47 47 47
-0.0777722693233952 0.0265387325288191 1.3336332799245698 61 61 61
-0.0516012934591292 0.0631396481319898 1.3121304009414629 45 45 45
-0.0538968079343112 0.0601363176784000 1.3142269126318527 37 37 37
-0.0804088907379150 0.0233435952577518 1.3369966330210765 53 53 53
-0.0565515314187431 0.0577717681168590 1.3160785669360198 55 55 55
-0.0777454543087825 0.0287665455981227 1.3342164179850291 50 50 50
-0.0540059246573632 0.0623508250715886 1.3144545166631587 30 30 30
-0.0500691660054981 0.0670151679281024 1.3129082965128291 34 34 34
-0.0797925805681391 0.0264635474526394 1.3366338920725864 49 49 49
-0.0555242268660081 0.0617393046172923 1.3148552039421024 61 61 61
-0.0781171425762891 0.0290751681042768 1.3353241193147358 93 93 93
-0.0812107483053616 0.0241127557382723 1.3393578145523639 55 55 55
-0.0812613404294048 0.0250682504450639 1.3389167290121553 76 76 76
-0.0839008792416457 0.0208297436659488 1.3419759055453415 56 56 56
-0.0808301078443811 0.0258470532088697 1.3386002341607206 60 60 60
-0.0796867901268162 0.0278211739281809 1.3371633802837073 74 74 74
-0.0824950705209939 0.0235961877591346 1.3404817609034354 124 124 124
-0.0819588802396347 0.0249579159456813 1.3401368746704272 81 81 81
-0.0802050742178100 0.0278367061070163 1.3389844137913065 58 58 58
-0.0808293467605769 0.0273350575192414 1.3393903598183419 61 61 61
-0.0834047284509058 0.0231159008763053 1.3428186335621790 62 62 62
-0.0829046473533973 0.0240278003048672 1.3419548623680704 58 58 58
-0.0829046473533973 0.0240278003048672 1.3419548623680704 58 58 58
-0.0800886554043878 0.0290309747680102 1.3387334484008828 56 56 56
-0.0790296801112685 0.0307114018242059 1.3377273038238349 90 90 90
-0.0795824402936708 0.0300747495050870 1.3386800352132611 68 68 68
-0.0806744338457856 0.0291381993125544 1.3394795601161851 67 67 67
-0.0788479027109908 0.0315443476640337 1.3382386155268367 100 100 100
-0.0788562871326133 0.0315373861889135 1.3382751225056089 100 100 100
-0.0837823942139338 0.0243469849808869 1.3429113703924838 65 65 65
-0.0803331738134758 0.0292891248358646 1.3399847718775315 97 97 97
-0.0572470039226826 0.0657424159224425 1.3168927440640454 40 40 40
-0.0806918262147571 0.0302827960904863 1.3405227394073336 63 63 63
-0.0593610480775953 0.0628706503557587 1.3193801549093611 44 44 44
-0.0619720409474747 0.0585970119796763 1.3226124008342561 36 36 36
-0.0553398917099574 0.0686397739015289 1.3161800008559934 43 43 43
-0.0604112149038457 0.0616638404096385 1.3202866749268325 43 43 43
-0.0607530139864422 0.0611667143878613 1.3208946307957623 64 64 64
-0.0600761671792656 0.0628100642018678 1.3201040179342527 60 60 60
-0.0598444677126433 0.0634275206337100 1.3202783615042386 59 59 59
-0.0823250741955283 0.0288175956949396 1.3438180764115584 66 66 66
-0.0324852689296431 0.0566991810097398 1.3607039721031760 55 55 55
-0.0799558781085097 0.0322798117785878 1.3419929799526809 93 93 93
-0.0805191723233968 0.0315719237356723 1.3427726026525362 104 104 104
-0.0803588862537184 0.0322893722504339 1.3425303080056488 62 62 62
-0.0338413487729894 0.0574707917481764 1.3602811363976930 36 36 36
-0.0260067998793569 0.0672742616929849 1.3563305111217456 63 63 63
-0.0606102651975892 0.0651403575053582 1.3215275207317920 70 70 70
-0.0273778143494630 0.0677523067394983 1.3562964161730158 100 100 100
-0.0297870945474504 0.0656875430472249 1.3567022107576070 68 68 68
-0.0625853484365040 0.0627688169534607 1.3242686145111404 86 86 86
-0.0638943763297297 0.0610838708705011 1.3253880654328958 53 53 53
-0.0306409007177041 0.0651049489937254 1.3577075023188208 66 66 66
-0.0303099608364449 0.0656106989398484 1.3576201299978998 58 58 58
-0.0589242750427416 0.0690907922683689 1.3208812419399523 55 55 55
-0.0633380528336303 0.0634575353520785 1.3258108030710711 98 98 98
-0.0633071376152231 0.0633949747364442 1.3259764334030775 98 98 98
-0.0618190077916777 0.0656035658478010 1.3244642456297977 87 87 87
-0.0581984731519403 0.0713662403265201 1.3208227512662831 64 64 64
-0.0601789314146871 0.0688708506398688 1.3228680230934411 64 64 64
-0.0601789314146871 0.0688708506398688 1.3228680230934411 64 64 64
-0.0638454842718483 0.0636449179778663 1.3262961707321643 63 63 63
-0.0610351557674189 0.0679071794307580 1.3244847057071449 97 97 97
-0.0649251639797768 0.0624568858095109 1.3288364712375642 70 70 70
-0.0630051897670059 0.0660933994051029 1.3264577238835007 105 105 105
-0.0620180569127827 0.0675931508535066 1.3255072572322530 98 98 98
-0.0598457830392125 0.0710628453521070 1.3233008507278903 109 109 109
-0.0615431421516126 0.0687098879106693 1.3250535931927503 74 74 74
-0.0615047859053010 0.0686544718431401 1.3251634241320256 74 74 74
-0.0650009952683954 0.0631241728258177 1.3291917477714150 68 68 68
-0.0624827674871451 0.0673857952692683 1.3261152529336777 66 66 66
-0.0594840894943958 0.0718767463526424 1.3234221333258540 97 97 97
-0.0841016850969722 0.0297170201068971 1.3557388043024294 106 106 106
-0.0644258152359564 0.0650948451644430 1.3294878782615367 91 91 91
-0.0651939209569658 0.0646329332918930 1.3303009543865416 92 92 92
-0.0632892024559811 0.0677050415941512 1.3288351235265359 104 104 104
-0.0610171697297669 0.0714748835775716 1.3261920561034923 75 75 75
-0.0653537467816774 0.0643286195011229 1.3315049969167616 72 72 72
-0.0640205212723301 0.0690178912510283 1.3275367096471840 83 83 83
-0.0609615466791862 0.0722672667445458 1.3271566587252785 114 114 114
-0.0601051544192371 0.0746318332257433 1.3266984692719379 163 163 163
-0.0647412777868474 0.0669501444821334 1.3325003011201613 64 64 64
-0.0609854880464051 0.0740898856240771 1.3279480854322552 85 85 85
-0.0785337722586954 0.0399950144914770 1.3621213040052209 33 33 33
-0.0828955441340870 0.0364601522144277 1.3632549506901068 106 106 106
-0.0803613340342015 0.0398283289069080 1.3639475294307384 72 72 72
-0.0820657453794541 0.0392067383461350 1.3648644159578354 67 67 67
-0.0815913229817839 0.0403328842500177 1.3674917208978341 61 61 61
-0.0628096435118137 0.0798065723361885 1.3474655921567908 74 74 74
0.0069042614153654 0.1149896030696082 1.3826570160739324 43 43 43
-0.0661380476762531 0.0765644287355342 1.3530297163708296 96 96 96
-0.0670749420998105 0.0753429842801643 1.3550940265328579 59 59 59
-0.0648596671843848 0.0788279069241319 1.3527796293718091 51 51 51
-0.0594771467626431 0.0769394993968011 1.3627853159478864 24 24 24
-0.0677940421388574 0.0765376077949089 1.3569691747440653 121 121 121
-0.0840153078117377 0.0500578311522998 1.3779211578156645 69 69 69
-0.0741064941275337 0.0697780881755619 1.3675440242459278 37 37 37
0.0036841314261666 0.1208175728747222 1.3859756995865113 43 43 43
-0.0709338017496451 0.0749464595375785 1.3651892088980973 63 63 63
-0.0709338017496451 0.0749464595375785 1.3651892088980973 63 63 63
-0.0720808359099335 0.0732636407348543 1.3675099771280943 71 71 71
-0.0721911350563047 0.0734556160121049 1.3669517393598469 71 71 71
-0.0697672466409058 0.0769571578015098 1.3651188239591185 104 104 104
-0.0714754163176078 0.0767167884968828 1.3689432918305655 125 125 125
-0.0514755700838536 0.0922239733102860 1.3725201617524601 53 53 53
-0.0516083030582478 0.0914431374006521 1.3738336758120040 34 34 34
-0.0716175454187320 0.0779034562047019 1.3709370472343685 67 67 67
-0.0472717352905557 0.1032393419584612 1.3905456021717695 62 62 62
-0.0111479269354147 0.1278863075300501 1.3995893028191584 58 58 58
-0.0440326129918786 0.1110780214767101 1.4016560251793366 56 56 56
-0.0467830184244723 0.1208030481007275 1.4248137691773524 49 49 49
-0.0404700724277943 0.1449329525267112 1.4268872096245795 56 56 56
-0.0469556820649155 0.1611104549847640 1.4347493437691332 48 48 48
-0.0539485648428822 0.1613341452113875 1.4394926109975286 63 63 63
0.0432932326895028 -0.0766382711995907 1.3339986647137372 40 40 40
0.1390010456256897 0.0671361915082541 1.2757418022569553 116 116 116
0.0963202638770072 0.0190716409564983 1.2959750335169999 58 58 58
0.0967580109376711 0.0200809902157370 1.2954233139321407 56 56 56
0.0914472493765022 0.0147986379347845 1.2998826146903339 44 44 44
0.1017082923894785 0.0306256156103536 1.2922465670692314 70 70 70
0.0978347713140678 0.0248588703118821 1.2950241161270351 66 66 66
0.0993519473187101 0.0276614687394059 1.2935137835082935 58 58 58
0.0928073961552354 0.0176159370082411 1.2989740301587229 52 52 52
0.0957377974475798 0.0225794161639710 1.2969531371806078 54 54 54
0.0411385072506160 -0.0585329588004296 1.3378008605074392 23 23 23
0.0411494044818046 -0.0585279105130971 1.3378051164205897 22 22 22
0.0909284121704524 0.0164575447665913 1.3008771594239306 60 60 60
0.0932781808670828 0.0210519321429331 1.2983296486464455 51 51 51
0.0971099602867076 0.0269540588979996 1.2960918057192197 49 49 49
0.1017203584243244 0.0336339426648246 1.2931716392135553 72 72 72
0.0946579654438409 0.0234512998501881 1.2980753563494187 56 56 56
0.0908996788465886 0.0199293917853768 1.2993885955022353 49 49 49
0.1011165755808630 0.0344228452399067 1.2931344844803843 54 54 54
0.0985173794578111 0.0307294858551039 1.2954702926905228 65 65 65
0.0920573212495916 0.0224221717728110 1.2996697713442233 62 62 62
0.0909130529120078 0.0207406755661342 1.3009242856753713 47 47 47
0.0927927163239787 0.0235139476298621 1.2996292021641580 62 62 62
0.0931568928196923 0.0241529633578856 1.2992883507349877 43 43 43
0.0962118617190050 0.0293377578259557 1.2965315467517067 39 39 39
0.0880645905787976 0.0170676897801710 1.3030268999633920 67 67 67
0.0899048450163887 0.0197095192936283 1.3019127887367783 67 67 67
0.0882928647304980 0.0190571302534795 1.3018933709012663 46 46 46
0.0885959959703239 0.0187558272946828 1.3025387470087753 41 41 41
0.1003136561302054 0.0366740757177896 1.2937616032295578 51 51 51
0.0893701134545007 0.0197394639951361 1.3028030961118282 50 50 50
0.0959251416870603 0.0308019295620091 1.2968918885898988 59 59 59
0.0882132796630978 0.0204478851794542 1.3035680282257416 59 59 59
0.0972261130936090 0.0345886381614896 1.2968350851504478 70 70 70
0.0827421022845792 0.0136340460259480 1.3078539602598505 39 39 39
0.0973898387019603 0.0359172275353246 1.2969157195502539 61 61 61
0.0972620032035664 0.0360629225083108 1.2966136164437922 61 61 61
0.0879762221385864 0.0231267453471709 1.3036354001167265 63 63 63
0.0828956214250897 0.0156852730225526 1.3076305810061095 59 59 59
0.0869132434975630 0.0221728225547475 1.3048634454048502 57 57 57
0.0869361577850149 0.0221535107414816 1.3049323125589096 62 62 62
0.0917009695784858 0.0286877848927274 1.3021332658619291 60 60 60
0.0804928094919419 0.0136540824494900 1.3089675378255650 55 55 55
0.0813198489260213 0.0146125801793494 1.3086993093561978 59 59 59
0.0922626500417597 0.0309561367218936 1.3004520155045467 42 42 42
0.0902102759549671 0.0280094750377900 1.3024498925045895 36 36 36
0.0962988751348935 0.0379396141121868 1.2975811285594172 51 51 51
0.0999041258582074 0.0437681165901026 1.2947136693035721 67 67 67
0.0935379147418479 0.0349203881850333 1.2993036576998678 44 44 44
0.0989546607514381 0.0427761328441614 1.2959871794768305 50 50 50
0.0810635077972447 0.0173737237004938 1.3086861842459245 48 48 48
0.1001216200603631 0.0462900043563893 1.2948444637491130 52 52 52
0.1005632359925211 0.0467390901946503 1.2949939493097031 67 67 67
0.0976603302959776 0.0432279919008507 1.2966642860040143 47 47 47
0.0928306186898559 0.0360636167266509 1.3005189688452028 46 46 46
0.0895052204955368 0.0319162280547504 1.3029341679914550 60 60 60
0.0958084068869657 0.0415875037204878 1.2986073967671941 63 63 63
0.0999134396833620 0.0480607758274373 1.2952581895746680 58 58 58
0.0864575424723736 0.0286021724975982 1.3054359312100010 64 64 64
0.0859693372419409 0.0282570585894731 1.3054820239091174 37 37 37
0.0943073107106173 0.0404013175591766 1.2993519663972350 50 50 50
0.0864659998202546 0.0297014411641968 1.3053610504488689 61 61 61
0.0911151492176999 0.0370080237747393 1.3018453816397066 66 66 66
0.0916118345635443 0.0390214366354244 1.3014564026818154 37 37 37
0.0787199456164936 0.0216547470007070 1.3115779704584869 55 55 55
0.0919327823309350 0.0419562844913067 1.3020109090825540 56 56 56
0.0814583016039254 0.0264675185661834 1.3102022435264908 48 48 48
0.0955318523265353 0.0477578188932271 1.2990895630614225 46 46 46
0.0827308757062799 0.0291928502610858 1.3087599938196663 45 45 45
0.0800535939914227 0.0256250597958558 1.3108088160162594 57 57 57
0.0960997761409248 0.0494150889972433 1.2987575908899676 62 62 62
0.0799699399885045 0.0266034246852624 1.3103861327771620 42 42 42
0.0947738027676123 0.0478637191687305 1.3000584057060223 43 43 43
0.0770845344365755 0.0231155012419397 1.3130658358736289 56 56 56
0.0794245773548263 0.0263030072259204 1.3115610862886953 51 51 51
0.0939376062782037 0.0475153334019783 1.3010504843911905 68 68 68
0.0926784089578212 0.0466321055372478 1.3013847415667914 65 65 65
0.0907865235905337 0.0444444421620699 1.3023921151319400 50 50 50
0.0945001240163367 0.0501665275214603 1.3006338801644324 65 65 65
0.0791655653516822 0.0291257769729678 1.3116317852580992 39 39 39
0.0948208142112690 0.0522853996495823 1.2997982709641078 52 52 52
0.0916608485415668 0.0474608784221848 1.3028659743691673 56 56 56
0.0890392748806235 0.0441260487824116 1.3043850499810870 43 43 43
0.0781892162104902 0.0302185291275229 1.3128841786238523 55 55 55
0.0958105686322493 0.0568504465327247 1.2987954645628201 54 54 54
0.0790883647045791 0.0326393970713786 1.3120804676356590 57 57 57
0.0749787560497216 0.0271858929438919 1.3148996091202747 55 55 55
0.0762987450966955 0.0291712082191454 1.3148100176256019 50 50 50
0.0885876129151248 0.0490688348155500 1.3053781494305927 77 77 77
0.0786539616000291 0.0353208170741053 1.3128759443359956 55 55 55
0.0909712421958532 0.0534499918330015 1.3034349240593903 46 46 46
0.0812943900389245 0.0397622082425670 1.3116197088800177 44 44 44
0.0786200149219910 0.0363140234347002 1.3134286180364738 50 50 50
0.0844182249506406 0.0453225981506586 1.3085254174588905 50 50 50
0.0792000249016555 0.0386452347189965 1.3120945405696205 34 34 34
0.0854325298976475 0.0481804430210536 1.3073767781941941 55 55 55
0.0838517443128030 0.0451811136682249 1.3095355983405088 67 67 67
0.0837495495876926 0.0452865942190481 1.3092972397778393 67 67 67
0.0763733289533206 0.0357038106120605 1.3147926170629929 38 38 38
0.0590511710772985 0.0236882189517956 1.3124531183133827 51 51 51
0.0800550315209627 0.0428784942613199 1.3113997147020426 42 42 42
0.0756665905964455 0.0361333222125669 1.3156249414325301 39 39 39
0.0869739267947117 0.0529762402208790 1.3070973941385302 56 56 56
0.0798279490516844 0.0428968249471022 1.3125635608281079 61 61 61
0.0897492501020108 0.0575873849825889 1.3049914832934555 63 63 63
0.0741774538032073 0.0354213888728573 1.3163022714555832 48 48 48
0.0924718157581862 0.0612854692980411 1.3033341718224134 33 33 33
0.0823356728727554 0.0469073183580800 1.3108567966768978 60 60 60
0.0736377117091270 0.0355619305611993 1.3170310727880921 54 54 54
0.0788096741519146 0.0427528408174576 1.3135306200066581 43 43 43
0.0767206574874476 0.0401701359637366 1.3147561748458598 62 62 62
0.0844747807592136 0.0513009940181945 1.3090595499037272 52 52 52
0.0848269530374083 0.0519124984481810 1.3087862676595610 59 59 59
0.0751002971360275 0.0378012354164992 1.3168327974691483 58 58 58
0.0763334328516873 0.0402898853867598 1.3158087266512046 37 37 37
0.0788391163934456 0.0444726741926318 1.3138965792207149 44 44 44
0.0759638241337612 0.0413517442022060 1.3152893311390241 60 60 60
0.0864158561190466 0.0564923439905114 1.3083251018816580 71 71 71
0.0745667184110534 0.0401715210044316 1.3168339086976510 41 41 41
0.0681126822555170 0.0343808896459575 1.3176935693901319 26 26 26
0.0796520546100451 0.0484272290830151 1.3129881135547381 41 41 41
0.0797940209072759 0.0482400474592802 1.3133078905369289 51 51 51
0.0787003156515909 0.0470946954901394 1.3138886489257575 45 45 45
0.0811917717067628 0.0505743961079399 1.3124144319101605 61 61 61
0.0790574087455961 0.0487714182043653 1.3136132643351934 70 70 70
0.0760835522160064 0.0447500918523763 1.3162437936103377 38 38 38
0.0807942710040753 0.0524453100419690 1.3124562499208212 42 42 42
0.0791903965426825 0.0508362475451930 1.3139678517457722 68 68 68
0.0792999581617024 0.0507238527396787 1.3142166799141921 68 68 68
0.0831846118664717 0.0565004179790493 1.3112391154611311 55 55 55
0.0749269699484480 0.0449612013150514 1.3171367717030333 57 57 57
0.0750247795072404 0.0448552816502450 1.3173227025303469 57 57 57
0.0780347199205027 0.0500611805950738 1.3146747330936712 41 41 41
0.0426524825243715 0.0225346366322201 1.3141613050134064 49 49 49
0.0821333674232105 0.0570172890316676 1.3111893963618091 67 67 67
0.0827472502139978 0.0573578517349282 1.3113504231020761 55 55 55
0.0051979200354109 0.1282193559534903 1.3867221023589635 41 41 41
0.0828542498718643 0.0582409453102194 1.3109158578058993 61 61 61
0.0746505600752054 0.0464405478172544 1.3177679595724847 47 47 47
0.0810748355779272 0.0580850398680347 1.3129326332075257 40 40 40
0.0745055008648669 0.0488719709070120 1.3177018521273356 56 56 56
0.0755468882762251 0.0512478413821011 1.3166061195803462 63 63 63
0.0766184844895213 0.0510368886482090 1.3179387131788016 51 51 51
0.0732928629099329 0.0497203857997759 1.3189986503008202 59 59 59
0.0715383973580569 0.0485084272148525 1.3200566944894039 48 48 48
0.0718879790971595 0.0490229101479046 1.3197820096507278 60 60 60
0.0709131311907031 0.0482502007205512 1.3209714185618109 52 52 52
0.0575333989638827 0.0414625045939276 1.3182943091009589 47 47 47
0.0216732874718853 0.0150059543188846 1.3164220217799667 71 71 71
0.0237950354887821 0.0200143869825067 1.3142586202070785 33 33 33
0.0543663564952518 0.0415196104362888 1.3186949606801848 34 34 34
0.0056302596294653 0.0156476585632163 1.3164463124370236 52 52 52
-0.0106166689682883 0.0244072276872746 1.3094532939679255 67 67 67
-0.0271047820741514 0.0047427261206139 1.3191399257992806 48 48 48
0.0550491185637447 0.0577038402401148 1.3358771722937726 34 34 34
0.0555617627319964 0.0590529225379852 1.3350412114420536 38 38 38
0.0495821679081169 0.0508525691605393 1.3398109635985944 28 28 28
0.1102149202971346 0.1278539587852036 1.3055207439063723 118 118 118
-0.0298483181127103 0.0040318478996393 1.3193785859245506 46 46 46
-0.0297704374986069 0.0039775524420953 1.3195414500829286 36 36 36
0.0507424027824668 0.0542246535179437 1.3387604055943207 33 33 33
0.0508030881149384 0.0541239447382556 1.3389711236922273 41 41 41
0.0552524438707483 0.0613214932292520 1.3356230569313270 55 55 55
-0.0307357551930315 0.0050058659468557 1.3201753308815649 29 29 29
-0.0370403614762500 -0.0034900064401992 1.3244684186268434 51 51 51
0.0536741506646779 0.0590027374540104 1.3376239008896194 49 49 49
0.0492678484264256 0.0542801024280854 1.3404927408111986 31 31 31
0.0590460866453112 0.0689290490993787 1.3327585956007482 51 51 51
0.0533377827460656 0.0621603666431317 1.3364200056823798 53 53 53
0.0555979850405645 0.0656521654935357 1.3358155376524297 43 43 43
0.0568618181466350 0.0679209814766660 1.3353311355428541 42 42 42
-0.0370149517424350 0.0040830774596060 1.3213007828762968 29 29 29
0.0580364287976723 0.0705907192369001 1.3338136040734421 39 39 39
0.0516773248589788 0.0621307211259029 1.3382709334467195 49 49 49
0.0508455233303021 0.0628337949390175 1.3393337517966994 51 51 51
0.0554696680207925 0.0697405335630909 1.3361355553115992 48 48 48
-0.0422971838674033 0.0025016208410615 1.3218428032296357 58 58 58
-0.0430863090419220 0.0019917179244823 1.3219597687746918 49 49 49
-0.0382683452280077 0.0059076194181037 1.3219298393363172 29 29 29
0.0491439264215015 0.0623792519453812 1.3415238052478440 49 49 49
0.1122008028741793 0.1416135737940271 1.3057074596252383 120 120 120
0.0495563628337568 0.0638760504296006 1.3410370969022967 39 39 39
0.0522604013755123 0.0677790414813027 1.3387097738005904 37 37 37
0.0476895163231698 0.0614297002463175 1.3425372367894095 43 43 43
0.0483740574687818 0.0627390780657592 1.3417236165612778 49 49 49
0.0534763680658748 0.0696483826331191 1.3384324091787529 48 48 48
0.0448093255702953 0.0580535301568762 1.3446017609379344 40 40 40
0.0518814161855958 0.0683643746051990 1.3394232542632507 57 57 57
0.0513336787766294 0.0681046837658797 1.3395391630239091 39 39 39
-0.0182936570607564 0.0374126014837785 1.3091526913288785 35 35 35
0.0530874630354468 0.0726995875647378 1.3375498173962734 64 64 64
-0.0417780773030434 0.0095444759970667 1.3219575881642538 46 46 46
0.0538387206631524 0.0734511175519670 1.3387643851334570 49 49 49
-0.0175523710026936 0.0403425816378823 1.3080272593654292 96 96 96
0.0532832379753839 0.0746658043043684 1.3382621783006714 38 38 38
0.0546402214875898 0.0771253326081546 1.3374910080972060 53 53 53
0.0546893178076853 0.0770527290729987 1.3376339074782346 53 53 53
0.0456168664267486 0.0646479881063449 1.3443381779673964 34 34 34
0.0506171169731080 0.0717261561650159 1.3408396472705553 65 65 65
0.0541908715333899 0.0767090455472285 1.3379921761456584 50 50 50
0.0551604171464177 0.0787192875528240 1.3363363102990347 68 68 68
0.0510263183618456 0.0729768370695519 1.3407903674224106 46 46 46
0.0554223662922540 0.0795813762510580 1.3371013515841510 69 69 69
0.0587542194460454 0.0830618247716934 1.3362362453904382 38 38 38
-0.0559970111612924 -0.0018959002249873 1.3277310221500658 151 151 151
-0.0564403803481760 -0.0000310909587359 1.3247435003036689 88 88 88
0.0457215109078475 0.0660519472633799 1.3458946050648983 31 31 31
0.0461788354087346 0.0701840972454896 1.3448890359814993 46 46 46
0.0506116643816088 0.0779400646016440 1.3406778970073572 68 68 68
0.0562084302737669 0.0855552818781957 1.3370646804867339 72 72 72
0.0532820663035123 0.0828864254237757 1.3383057115359602 69 69 69
0.0525369612058908 0.0814555885814097 1.3397576918609406 49 49 49
0.0529103875154022 0.0819465597801044 1.3395102243904073 36 36 36
0.0554532117545364 0.0854168883787550 1.3375329553173818 55 55 55
0.0502452652454311 0.0793022042681646 1.3410964034523203 69 69 69
0.0537288887464465 0.0838636984224251 1.3388876460507473 76 76 76
0.0537288887464465 0.0838636984224251 1.3388876460507473 76 76 76
0.0460250679909548 0.0736946295818198 1.3451409979467437 48 48 48
0.0542369659133660 0.0854474039732218 1.3383912754099985 45 45 45
0.0485975732274627 0.0800036352164587 1.3430295961589578 64 64 64
-0.0288120169246295 0.0461308053645698 1.3089147986067644 56 56 56
-0.0218248961611493 0.0529404663430261 1.3096158023802245 33 33 33
-0.0664563344265145 0.0054944631335977 1.3248693714329951 119 119 119
0.0480443451272784 0.0846180155223783 1.3440305166892721 61 61 61
-0.0594062707558784 0.0179261689034806 1.3200966544259931 124 124 124
-0.0602583230837085 0.0176562941987415 1.3206343194811512 98 98 98
-0.0612898196964030 0.0179636241849202 1.3208239350418638 116 116 116
0.0465819444422600 0.0867147804012618 1.3455730846659659 63 63 63
-0.0616459073886099 0.0196711684038868 1.3201652635779060 93 93 93
0.0452241440674618 0.0858057215448826 1.3459656464605652 46 46 46
0.0396798872560805 0.0802543439256890 1.3504296276570580 44 44 44
0.0429118813786502 0.0843753401640566 1.3488093266980457 57 57 57
0.0445629462403185 0.0864904409485424 1.3480570170030803 47 47 47
-0.0315398234919300 0.0566804915746405 1.3074585447257021 32 32 32
-0.0414410053436065 0.0478187959208282 1.3095815671798019 118 118 118
-0.0674474587145951 0.0163917732558187 1.3234697572136360 78 78 78
0.0455880202378912 0.0898489660796781 1.3465583054413195 52 52 52
0.0414537085414815 0.0839693858476027 1.3507169122285694 42 42 42
-0.0428580659593081 0.0486887094453326 1.3096689015946097 100 100 100
-0.0428580659593081 0.0486887094453326 1.3096689015946097 100 100 100
0.0330434547123524 0.0746290039446316 1.3563800886665405 55 55 55
0.0374992769652512 0.0808133786249476 1.3530132732782056 57 57 57
0.0337109399525190 0.0756423437286888 1.3561386616778826 46 46 46
-0.0321115488147377 0.0579879300227178 1.3103211150263481 26 26 26
-0.0419681128449463 0.0525488000648700 1.3087003829808772 87 87 87
0.0473094620332920 0.0954438159065162 1.3469948830504903 38 38 38
-0.0697926616477266 0.0184042524648666 1.3248904942317636 40 40 40
-0.0699397020741135 0.0191918070914887 1.3248961356116873 70 70 70
-0.0412719555504078 0.0549871354138609 1.3079557021398778 87 87 87
-0.0387116955539075 0.0585258573494837 1.3061887019751490 82 82 82
0.0315556218029548 0.0758514441864985 1.3589409988153143 52 52 52
-0.0416378801548533 0.0561991929014064 1.3081008282196738 97 97 97
0.0440280265439409 0.0944498334511045 1.3491490249824158 49 49 49
0.0440280265439409 0.0944498334511045 1.3491490249824158 49 49 49
0.0431659294573775 0.0943306544172472 1.3492620249650069 65 65 65
0.0329977538796952 0.0819876232789079 1.3569659932711788 52 52 52
-0.0723419818505299 0.0202973187894441 1.3265840785182230 42 42 42
-0.0713322464444891 0.0214867399956573 1.3262043041290621 59 59 59
0.0343252050934283 0.0845808641545087 1.3560513693689777 40 40 40
0.0383503880976640 0.0905464892617034 1.3533626849083200 35 35 35
-0.0705802936412984 0.0235082584965579 1.3261247786867187 41 41 41
0.0301895463900009 0.0788542369483311 1.3606314466789806 46 46 46
0.0366041754726409 0.0891286003055396 1.3541450186618240 59 59 59
-0.0719077211069549 0.0232118506025126 1.3264269599951359 35 35 35
-0.0756851609429870 0.0186343674272149 1.3297934624260530 37 37 37
0.0379176670808817 0.0929717333073619 1.3529807514728096 50 50 50
0.0376747054798415 0.0923393277010358 1.3543396194291926 65 65 65
0.0360881390334533 0.0909493964356138 1.3548713821453013 45 45 45
0.0335588649705327 0.0876074464779115 1.3570202962450777 49 49 49
-0.0197615231551560 0.0503235855489876 1.3499812398947595 55 55 55
0.0346272872239187 0.0899235624899695 1.3562433834757306 61 61 61
-0.0549669383070049 0.0514807710812994 1.3148822081526683 76 76 76
-0.0534753369201382 0.0535403209251962 1.3138300655774797 46 46 46
-0.0537430608076899 0.0542114686050997 1.3138822917458934 74 74 74
-0.0476977790157921 0.0624268196419166 1.3100728395872254 73 73 73
0.0257082309203488 0.0826896803531470 1.3634938766788123 37 37 37
-0.0813463914397765 0.0172736285688456 1.3357770814626651 40 40 40
-0.0522122411759989 0.0582164123298819 1.3120382448802204 78 78 78
-0.0767942422778155 0.0238809587463350 1.3320654598249420 34 34 34
-0.0514090047012329 0.0596614092710668 1.3126993217006953 59 59 59
-0.0779065355162967 0.0237968454627582 1.3331023624730405 39 39 39
0.0279448865414814 0.0876073069525690 1.3621268419131674 77 77 77
-0.0156667097451336 0.0618608061291810 1.3501277663724542 25 25 25
-0.0474689658807622 0.0652781301060181 1.3113745095056555 31 31 31
-0.0809249920655847 0.0209489422473653 1.3358777364994150 69 69 69
-0.0821236927737336 0.0191591733469647 1.3374386777091307 43 43 43
-0.0523825905624620 0.0618231648573976 1.3127916693297859 46 46 46
-0.0809811703231678 0.0213798628745223 1.3366449123134194 44 44 44
-0.0810424258535285 0.0214142517924975 1.3365951024171454 44 44 44
-0.0814575832958676 0.0208092314503571 1.3373233526777089 61 61 61
-0.0816558745284582 0.0229675643589189 1.3378462351764371 58 58 58
-0.0821418871224123 0.0225058236066649 1.3390979886925487 108 108 108
-0.0792121862682309 0.0277983579534276 1.3360690717429800 51 51 51
-0.0791845508097090 0.0277326061353552 1.3362972044760943 51 51 51
-0.0784714855356397 0.0285351703211043 1.3359232172100488 63 63 63
-0.0770953173660081 0.0308635797857098 1.3342658501302054 134 134 134
-0.0814306546247021 0.0245361222804706 1.3384815354459318 55 55 55
-0.0823383087219578 0.0240751886535062 1.3406769276383093 58 58 58
-0.0816953439809780 0.0254811489807205 1.3400895948767049 56 56 56
-0.0796654884347789 0.0295213608373222 1.3382077492401003 91 91 91
-0.0811490667033312 0.0279095935275797 1.3397756379177292 63 63 63
-0.0799196538893584 0.0306135766771227 1.3388531363088751 87 87 87
-0.0786316332849412 0.0321290268376464 1.3382963300325059 70 70 70
-0.0529053544613857 0.0692676767745186 1.3158108983460310 28 28 28
-0.0817319213848721 0.0279964342115370 1.3420999187194267 58 58 58
-0.0791245525145299 0.0323030711084769 1.3397320963236883 74 74 74
-0.0327763609610145 0.0552937945956176 1.3600217166965713 75 75 75
-0.0833245661287677 0.0263696634938272 1.3451045267555264 63 63 63
-0.0802080973681071 0.0318208951397619 1.3416634471433126 67 67 67
-0.0327922040101543 0.0578967738171651 1.3590359015846154 80 80 80
-0.0589530988485986 0.0658960674328470 1.3197149509003268 39 39 39
-0.0571259066961205 0.0690295604652265 1.3184852503113778 76 76 76
-0.0630149295737401 0.0613471673196719 1.3240688544007913 56 56 56
-0.0573958721422646 0.0704511764087572 1.3194993402840856 48 48 48
-0.0642013715349166 0.0625622017438240 1.3272047251126595 98 98 98
-0.0642013715349166 0.0625622017438240 1.3272047251126595 98 98 98
-0.0796434759340812 0.0366145108823717 1.3474960206505500 92 92 92
-0.0597016044283790 0.0729138788961863 1.3237754452688757 75 75 75
-0.0657978860283264 0.0636185269736801 1.3314966185737240 98 98 98
-0.0660107438758965 0.0634610449851263 1.3327660876851521 70 70 70
-0.0626784510583732 0.0694009025433162 1.3306203559937835 77 77 77
0.0097566078097163 0.0947661514946856 1.3784651243802133 48 48 48
0.0107556308858856 0.0963724942805427 1.3773806236962938 34 34 34
-0.0821975102192673 0.0352849549349583 1.3596831519975157 103 103 103
-0.0824266356688799 0.0364659030700944 1.3623005314683152 81 81 81
0.0089949125885718 0.0988901722083171 1.3799528988863139 38 38 38
0.0110145511485701 0.1023438814464061 1.3778412768077350 38 38 38
-0.0795867982124539 0.0404995039660094 1.3645019615096041 52 52 52
0.0126534656525620 0.1068015113033512 1.3759199200815533 42 42 42
0.0127087708286160 0.1061429734106832 1.3783821470467292 56 56 56
0.0019251236530093 0.0959343395417391 1.3859237355681611 35 35 35
0.0020931871818236 0.0966296643602480 1.3856150110535497 45 45 45
-0.0589324952309020 0.0798108338454493 1.3429726460595699 25 25 25
0.0048876104800080 0.1070884473394837 1.3831672347782031 52 52 52
0.0099269213457614 0.1138282440065033 1.3801526904015815 59 59 59
-0.0648445438714600 0.0763546619511918 1.3476608312130638 47 47 47
-0.0850508200981221 0.0434229373436444 1.3746308118335813 51 51 51
0.0101560582739844 0.1191046467538673 1.3801082527631061 50 50 50
0.0072838804462400 0.1153726507566294 1.3825159787693704 62 62 62
0.0085503235196673 0.1168532554678389 1.3818436772522302 45 45 45
0.0096671391699854 0.1187349728440202 1.3805031496207978 68 68 68
0.0096671391699854 0.1187349728440202 1.3805031496207978 68 68 68
-0.0831446985339803 0.0488401902048182 1.3751997141142891 66 66 66
-0.0683380711111067 0.0763348296513301 1.3572186954039112 127 127 127
-0.0535489357024747 0.0867211478991408 1.3610811138096062 17 17 17
-0.0737456624790993 0.0699805123545070 1.3683247110267258 33 33 33
0.0068540305700923 0.1241657281637263 1.3839354249672911 52 52 52
-0.0747498438699325 0.0692800533203709 1.3691343750469180 33 33 33
-0.0754643919139225 0.0689775363953224 1.3703254546942001 84 84 84
-0.0748334637825890 0.0707653987962840 1.3692304086625966 114 114 114
-0.0468552599320285 0.0918291802236910 1.3723761773388619 36 36 36
0.0029665825222571 0.1229417261449448 1.3872679692182901 62 62 62
0.0014965965932417 0.1229241461106185 1.3877235647457506 63 63 63
0.0017528466501040 0.1237207920412981 1.3886305510917365 64 64 64
0.0033631602488877 0.1265766638451001 1.3866145971961235 65 65 65
0.0028684037614098 0.1273055942589741 1.3877398674846415 45 45 45
-0.0509564848732674 0.0931307949372807 1.3744070009190179 52 52 52
-0.0506537278643065 0.0939674637121176 1.3758114526814675 55 55 55
-0.0067551710798258 0.1169578037447435 1.3943570685151989 57 57 57
-0.0502032514899310 0.0939686349228896 1.3773912066947549 58 58 58
-0.0500153397499130 0.0944601360510893 1.3781842999096052 56 56 56
-0.0018869977981396 0.1269193818856053 1.3910351735009356 50 50 50
-0.0075969575315466 0.1235463469556440 1.3966387085745917 47 47 47
-0.0161137472812361 0.1147650689130183 1.4027714046390085 51 51 51
-0.0071861600820559 0.1278885382859165 1.3961458298075105 52 52 52
-0.0080938137919087 0.1289213793459595 1.3973443235167005 53 53 53
-0.0077277688725167 0.1297109475031379 1.3969128016741945 81 81 81
-0.0568113753495811 0.1131465883499703 1.4194898702710939 44 44 44
-0.0364662655594705 0.1314433834189125 1.4224797169784886 55 55 55
-0.0327698902938601 0.1398764486159185 1.4200413551381930 57 57 57
-0.0400624268062376 0.1569109552209486 1.4277938597415241 59 59 59
-0.0698694541217547 0.1729380316921798 1.4089156932040412 101 101 101
0.0526612439144501 -0.0641061387806744 1.3270561521898567 39 39 39
0.0538240883292603 -0.0623308205753488 1.3264567153350668 28 28 28
0.1430187961897555 0.0666084267182302 1.2729289789098917 117 117 117
0.0453592537518052 -0.0608950073242462 1.3338725174287311 29 29 29
0.0991029234523708 0.0221727950619720 1.2937156689759113 55 55 55
0.1015554101600316 0.0274039607050478 1.2926530124618900 40 40 40
0.1016102092346639 0.0290897381901666 1.2914246193807657 39 39 39
0.0966629669505546 0.0217240495063072 1.2953576037628329 38 38 38
0.1026869528844647 0.0324620105234706 1.2910867900958363 33 33 33
0.0919837526810306 0.0160432826371278 1.2997279298673563 47 47 47
0.1036442707808893 0.0341965141150319 1.2907572609037301 80 80 80
0.0923287019606249 0.0173889823652414 1.2996470943661276 37 37 37
0.1047153151898848 0.0374812516234551 1.2909662206348063 25 25 25
0.0934849773830251 0.0216667998755418 1.2986090310739007 48 48 48
0.1027245115557612 0.0369168022409832 1.2917802949585233 47 47 47
0.1028079715531431 0.0367800546916469 1.2920155229916888 37 37 37
0.1216655048116558 0.0543302842184254 1.2898086416393015 127 127 127
0.0901754318953563 0.0188494252306640 1.3009595013806596 50 50 50
0.1018763163620299 0.0365591036001044 1.2922444601008092 67 67 67
0.0915610890777758 0.0211520120064453 1.3002176671603500 54 54 54
0.1033519318439079 0.0390365328478269 1.2918194472884212 44 44 44
0.1019203198782267 0.0407169660247094 1.2929490399941777 53 53 53
0.0897168519290440 0.0247933533931168 1.3019207010669382 68 68 68
0.0819281948285689 0.0134828064503085 1.3078779107556244 73 73 73
0.0850665825660998 0.0180737530393797 1.3059134232703187 53 53 53
0.0975565951261635 0.0380138621789935 1.2962698864766649 65 65 65
0.0862376868248591 0.0216634344778125 1.3048002238180632 50 50 50
0.0806880108439102 0.0142161658571305 1.3093348101057138 37 37 37
0.1017204081759085 0.0456840042935140 1.2940377262196379 72 72 72
0.0966096520296784 0.0386528711038377 1.2974964959344450 75 75 75
0.0899446531456627 0.0295397346977171 1.3027277797381418 49 49 49
0.0983641311772373 0.0422576854355722 1.2964487272571656 69 69 69
0.0887125232324179 0.0299054172715685 1.3035095481549310 66 66 66
0.0782203172117891 0.0147534727309072 1.3110492910795541 69 69 69
0.0892334023106052 0.0309349142768369 1.3039605646852157 46 46 46
0.0816325855100223 0.0202242315687819 1.3098378121373357 46 46 46
0.0933791203717738 0.0374481794675833 1.3012720496496049 63 63 63
0.0776465846462658 0.0159636467379978 1.3118251201355087 42 42 42
0.1002405495412962 0.0493143228534514 1.2950360057477479 44 44 44
0.0809703909555426 0.0401699355544490 1.2892408987730533 26 26 26
0.0855874008269324 0.0291607331584139 1.3065704998036873 60 60 60
0.0910814031869932 0.0375382034657723 1.3032701032036895 21 21 21
0.0925403460995726 0.0413494569884239 1.3010518237403166 75 75 75
0.0925370423339391 0.0413911517623880 1.3010365559331243 67 67 67
0.0916723917079887 0.0407994115137117 1.3017334679816219 51 51 51
0.1014565855474188 0.0537006108525588 1.2963844151050410 37 37 37
0.0819075038895805 0.0288604604011576 1.3090282301163847 54 54 54
0.0830884152885349 0.0319197621129514 1.3094062742928374 29 29 29
0.0936112267894509 0.0499523338041628 1.3008733537631281 43 43 43
0.0895252554630447 0.0442143570335547 1.3040814057112420 65 65 65
0.0781584360497028 0.0294942885742432 1.3127227643698141 41 41 41
0.0945407217104834 0.0542543188115957 1.3001468173453636 73 73 73
0.0914779911759437 0.0499779437876975 1.3029052237151699 38 38 38
0.0974127315352967 0.0582672062419931 1.3004468858416871 36 36 36
0.0766038533607830 0.0311481900210780 1.3143877585946664 37 37 37
0.0782806478486895 0.0339597010218444 1.3130081509213634 54 54 54
0.0913689952454894 0.0534846387872165 1.3025646488013394 69 69 69
0.0901774154368707 0.0537250470458733 1.3046122881398987 42 42 42
0.0771529722706140 0.0351797699996086 1.3145207088060713 36 36 36
0.0813106455284166 0.0428207216232513 1.3109687837254607 44 44 44
0.0844893637611063 0.0479434418471547 1.3094883856927924 65 65 65
0.0852112687203462 0.0493677435154304 1.3086002468609292 62 62 62
0.0851726345554193 0.0537563869154717 1.3084154939749890 42 42 42
0.0842552861519487 0.0513624314994763 1.3103153728689751 53 53 53
0.0776272882282843 0.0457733157520721 1.3147192683587299 37 37 37
0.0765650063241245 0.0449067564480175 1.3153565278010650 59 59 59
0.0747529537599277 0.0429500404388888 1.3167600556112942 41 41 41
0.0783323157595998 0.0490170923141819 1.3139788299177522 68 68 68
0.0777673283848793 0.0485646522070880 1.3152060412736812 49 49 49
0.0814693375654715 0.0541177268732909 1.3120662571292039 71 71 71
0.0838888244297825 0.0596626708314636 1.3101812745374366 57 57 57
0.0762017052443009 0.0496893794257128 1.3162271842331628 66 66 66
0.0829594366309271 0.0590952773975794 1.3114106426484975 69 69 69
0.0794956026921020 0.0567411282281464 1.3141518790790940 49 49 49
0.0738569546662339 0.0490273178352758 1.3184167265220412 37 37 37
0.0740219866473564 0.0499958956754993 1.3174172994150102 59 59 59
0.0752047387745701 0.0528461538274851 1.3169730705809803 36 36 36
0.0602820486190940 0.0395775142702538 1.3185801418440017 44 44 44
0.0766196027842480 0.0566885803746537 1.3165129589396518 50 50 50
0.0712165730433839 0.0499368142559653 1.3206775761587355 65 65 65
0.0072234318542172 0.0150741519691638 1.3164338167293967 34 34 34
-0.0197790285596133 -0.0022684431683949 1.3183476715602132 46 46 46
0.0027208333973128 0.0230613872265324 1.3108814260177883 41 41 41
-0.0047131201611321 0.0250916871584847 1.3083850891845763 57 57 57
0.0263830394009576 0.0451260957082962 1.3176076181275704 25 25 25
-0.0090851597435882 0.0255347759313227 1.3089700350526539 100 100 100
0.0556548044593277 0.0581243504566623 1.3353469283412116 49 49 49
0.0506254556921422 0.0524113530262211 1.3383154574529019 29 29 29
0.0519942764703887 0.0548882717164208 1.3378664957081714 28 28 28
-0.0306145971740115 0.0036033112088593 1.3197419477834369 62 62 62
0.0567172023698437 0.0621556710413075 1.3346579561714811 45 45 45
-0.0379006400192523 -0.0045274183294032 1.3250942585479542 58 58 58
0.0585265277908905 0.0691323013698862 1.3336321176253523 42 42 42
0.0599649435728275 0.0709761882851237 1.3331506755574085 22 22 22
-0.0359844196536036 0.0048905982713343 1.3212980955208600 37 37 37
0.0493590462223276 0.0603002468087226 1.3411283219986279 28 28 28
0.0598858341983137 0.0746854646386865 1.3337438659005789 23 23 23
0.0522510441251905 0.0654736679783733 1.3378604238381260 39 39 39
-0.0376749906191839 0.0062779688608035 1.3220615516330079 35 35 35
0.0468133221332574 0.0576926577015644 1.3428084582058484 27 27 27
0.0595698063809287 0.0760356705710840 1.3333775540518977 25 25 25
0.0566993256521919 0.0734979227561501 1.3357235334312942 74 74 74
0.0497505806576207 0.0668875870947143 1.3413018011503914 34 34 34
0.0437226219226816 0.0600431113859475 1.3457776067957445 43 43 43
0.0431757983927391 0.0592590373429246 1.3465693913550332 30 30 30
0.0445110580135650 0.0614600472856827 1.3455767882610781 46 46 46
0.0558985067979706 0.0788940236024825 1.3364565589704700 47 47 47
0.0461936818281087 0.0650375337046312 1.3443269147524752 47 47 47
-0.0559222674924981 0.0000191667986788 1.3242852839738479 74 74 74
-0.0144157658006597 0.0460161487642933 1.3098999021893873 39 39 39
0.0432903303472512 0.0646520433955435 1.3467854090777431 29 29 29
0.0533977596060263 0.0806085198658175 1.3384079677723533 39 39 39
-0.0205317615193872 0.0455351494544601 1.3072900499100011 56 56 56
0.0461249213628821 0.0695826164355302 1.3462594476024570 20 20 20
0.0543844014762361 0.0844305115161806 1.3383831925917966 42 42 42
0.0476163553202215 0.0758497741172191 1.3434665648496704 36 36 36
0.0499734220472333 0.0791172885305682 1.3425982292551355 45 45 45
0.0375414363076226 0.0639156767799793 1.3501605029532622 26 26 26
0.0495720869061269 0.0798023944453310 1.3427270972319156 54 54 54
0.0458346927671033 0.0751067181380798 1.3456130590847384 56 56 56
0.0464708236272236 0.0764513578940274 1.3450283104596186 59 59 59
0.0510226395768418 0.0838266855515247 1.3410432508623709 53 53 53
0.0510226395768418 0.0838266855515247 1.3410432508623709 53 53 53
0.0451382135458556 0.0751911570797844 1.3470582424086786 33 33 33
-0.0638834323778330 0.0056956776975551 1.3243163209440911 123 123 123
0.0465899167030910 0.0790222250105262 1.3453069799895558 46 46 46
0.0360408432642734 0.0662938973437245 1.3529956382747612 33 33 33
-0.0333242800996102 0.0360067729070807 1.3202502768941056 23 23 23
-0.0349556993599451 0.0164098726987220 1.3453606516496197 10 10 10
-0.0236523660993955 0.0529158063199701 1.3103449047768154 37 37 37
-0.0347848643329506 0.0441134086063675 1.3102565843408711 85 85 85
0.0309718728487351 0.0628637747177881 1.3572394026676138 32 32 32
0.0329576078982118 0.0656043858274379 1.3558745322998247 42 42 42
0.0821165335616885 0.1252657518301057 1.3315954709351636 127 127 127
0.0312078885411639 0.0653460363536598 1.3568328347789720 31 31 31
0.0311609723501491 0.0653803065289945 1.3567589070096064 31 31 31
0.0418328630577408 0.0822154176487009 1.3486719764452135 45 45 45
-0.0718221316677647 0.0082266413426808 1.3267053934987170 41 41 41
0.0475043665524728 0.0916913711266599 1.3451095807851745 54 54 54
0.0475074540706207 0.0916899808435488 1.3451026015199317 54 54 54
0.0420200027002630 0.0859127619381412 1.3487343042341242 60 60 60
0.0334506846709494 0.0738701426047161 1.3558348969231047 35 35 35
0.0344215744132253 0.0752638967758758 1.3554375755982717 46 46 46
